0.21131832897663116	0.15384615384615385	1.0	4	0	0
0.4003048539161682	0.2	0.16666666666666666	12	0	0
0.05333982780575752	0.2857142857142857	0.375	8	2	0
0.3295489251613617	0.2857142857142857	0.4444444444444444	9	1	0
0.31560325622558594	0.32	0.07142857142857142	14	6	0
0.6371500492095947	0.25925925925925924	0.058823529411764705	17	0	0
0.9078196287155151	0.375	0.4	10	0	0
0.9174938201904297	0.42857142857142855	0.6666666666666666	3	0	0
0.9943137168884277	0.6363636363636364	0.3333333333333333	3	3	0
0.0	0.11458333333333333	0.0125	80	2	0
0.5095797777175903	0.3076923076923077	0.043478260869565216	23	1	0
0.9211909174919128	0.8888888888888888	0.23076923076923078	13	0	0
0.9564545154571533	1.0	0.6666666666666666	3	0	0
0.06206695735454559	0.23255813953488372	0.14893617021276595	47	4	0
0.9801732301712036	0.0	0.36363636363636365	11	0	0
0.00305048655718565	0.26666666666666666	1.0	4	0	0
0.011264851316809654	0.20634920634920634	0.4444444444444444	36	6	0
0.0	0.17721518987341772	0.3442622950819672	61	8	0
1.6846825019456446E-4	0.1509433962264151	0.5074626865671642	67	9	0
0.9496582746505737	0.09090909090909091	0.375	8	0	0
0.8288018107414246	0.125	0.625	8	2	0
0.004980678204447031	0.05555555555555555	1.0	11	0	0
0.6830894351005554	0.2222222222222222	0.3333333333333333	3	0	0
0.9847180247306824	0.18181818181818182	0.06666666666666667	15	0	0
0.7426345348358154	0.3	1.0	4	0	0
0.9839075803756714	0.18181818181818182	0.1875	16	0	0
0.005980787333101034	0.058823529411764705	0.3333333333333333	3	0	0
0.12233336269855499	0.30434782608695654	0.7	10	0	0
2.801046066451818E-4	0.136986301369863	0.875	40	1	0
0.0	0.13333333333333333	0.3333333333333333	3	0	0
0.7398234009742737	0.32	0.46153846153846156	13	1	0
0.0	0.1875	0.1111111111111111	9	0	0
0.0	0.3049645390070922	0.008695652173913044	115	22	0
0.6714591383934021	0.4	0.6666666666666666	6	0	0
0.017903650179505348	0.2857142857142857	0.75	4	1	0
0.9680024981498718	0.6	1.0	5	1	0
1.668737968429923E-4	0.4074074074074074	0.8823529411764706	17	29	0
4.3778010876849294E-4	0.125	1.6666666666666667	3	0	0
0.09577876329421997	0.3157894736842105	0.6666666666666666	9	0	0
0.03137986734509468	0.2857142857142857	0.5555555555555556	18	1	0
0.5553115606307983	0.13636363636363635	0.3333333333333333	9	1	0
0.09672237187623978	0.13333333333333333	1.0	4	0	0
0.16240382194519043	0.13333333333333333	0.6875	16	3	0
0.9917606711387634	0.3	0.1111111111111111	9	0	0
0.9107904434204102	0.0	0.3333333333333333	3	0	0
0.9981715679168701	0.16666666666666666	0.25	16	2	0
0.4649789035320282	0.375	0.75	4	0	0
0.10155972838401794	0.17647058823529413	0.4375	16	0	0
0.015394460409879684	0.3055555555555556	0.4722222222222222	36	5	0
0.8075171113014221	0.3333333333333333	0.75	4	1	0
0.9000027775764465	0.5	0.32142857142857145	28	5	0
0.43613746762275696	0.3448275862068966	0.19230769230769232	26	4	0
0.46214377880096436	0.2	0.6666666666666666	12	1	0
0.35681602358818054	0.5714285714285714	0.5	6	0	0
0.7981370091438293	0.3076923076923077	0.3888888888888889	18	2	0
0.07496344298124313	0.2222222222222222	0.7777777777777778	9	2	0
0.9932042956352234	0.25	0.3	10	0	0
6.819629925303161E-4	0.2	1.0	3	0	0
0.5558314919471741	0.1111111111111111	0.4	5	1	0
0.005864670034497976	0.5238095238095238	1.0	3	1	0
0.2787531614303589	0.5	0.6666666666666666	3	0	0
0.2916404902935028	0.4444444444444444	0.46875	32	7	0
0.007124899420887232	0.2978723404255319	0.09523809523809523	21	1	0
0.505989134311676	1.0	0.14285714285714285	7	0	0
0.8178801536560059	0.1875	0.45454545454545453	11	2	0
0.6869422793388367	0.2727272727272727	0.5833333333333334	12	2	0
0.12385529279708862	0.3333333333333333	0.47619047619047616	21	8	0
0.014215863309800625	0.4	0.625	24	3	0
0.10038071870803833	0.36363636363636365	0.05555555555555555	18	2	0
0.9980677366256714	0.375	0.3333333333333333	3	1	0
0.4607437252998352	0.125	1.0	4	0	0
0.9859195351600647	0.125	0.4	5	1	0
0.7212905883789062	0.08333333333333333	1.0	7	1	0
0.951053261756897	0.36363636363636365	0.2	5	2	0
0.9231317639350891	0.2857142857142857	0.16666666666666666	6	2	0
0.02181369625031948	0.7222222222222222	0.3333333333333333	3	0	0
0.9484322667121887	0.3333333333333333	0.2	5	2	0
0.41301077604293823	0.09090909090909091	1.0	6	0	0
0.1650223433971405	0.3888888888888889	0.6666666666666666	12	4	0
0.2535315155982971	0.1	0.16666666666666666	6	0	0
0.7661051750183105	0.42857142857142855	0.6666666666666666	6	0	0
0.005776610691100359	0.23809523809523808	1.0	3	0	0
0.024756789207458496	0.375	1.0	4	0	0
0.12845121324062347	0.3076923076923077	1.2	5	1	0
0.37087810039520264	0.4411764705882353	0.6153846153846154	13	1	0
0.34093260765075684	0.4	0.6428571428571429	14	2	0
0.46820369362831116	0.3125	0.7894736842105263	19	0	0
0.030190857127308846	0.5	0.6666666666666666	3	0	0
0.0012109620729461312	0.39285714285714285	0.04	25	2	0
0.5160964131355286	0.16666666666666666	0.3076923076923077	13	0	0
0.3356644809246063	0.2903225806451613	0.03225806451612903	31	3	0
0.26008427143096924	0.29411764705882354	0.045454545454545456	22	5	0
0.667493999004364	0.3333333333333333	0.6	5	1	0
0.94753098487854	0.47058823529411764	0.4166666666666667	12	5	0
0.1588239073753357	0.25	2.5	8	2	0
0.9781377911567688	0.6363636363636364	0.125	8	1	0
0.7698706388473511	0.7777777777777778	1.0	6	0	0
0.015957722440361977	0.1111111111111111	0.625	8	2	0
0.15521803498268127	0.07692307692307693	1.0	5	0	0
0.0	0.5	0.25	4	0	0
0.5858336091041565	0.5	0.75	4	0	0
0.0022754205856472254	0.36	0.75	8	2	0
0.009651821106672287	0.6153846153846154	0.8571428571428571	7	2	0
0.894529402256012	0.2	0.2727272727272727	11	1	0
0.6367378830909729	0.1	0.1111111111111111	18	0	0
0.02011161670088768	0.6	1.0	3	5	0
0.33896639943122864	0.19047619047619047	0.42105263157894735	19	1	0
0.08911552280187607	0.20689655172413793	1.7142857142857142	14	0	0
0.996117115020752	0.2727272727272727	0.08333333333333333	12	3	0
0.7273451089859009	0.25	0.5	4	2	0
0.7184462547302246	0.25	0.5	4	2	0
0.7935900688171387	0.25	0.16666666666666666	6	0	0
0.59291011095047	0.3125	0.07692307692307693	13	0	0
0.9561532735824585	0.07142857142857142	0.6666666666666666	6	0	0
0.0	0.10714285714285714	0.7142857142857143	7	2	0
0.18161089718341827	0.47368421052631576	0.625	16	2	0
0.8957716226577759	0.25	0.6666666666666666	3	3	0
0.9365094900131226	0.2	0.25	12	3	0
0.5896974802017212	0.2857142857142857	0.3333333333333333	3	0	0
0.9947154521942139	0.2727272727272727	0.09090909090909091	11	4	0
0.8458959460258484	0.125	0.16666666666666666	6	1	0
0.4189727306365967	0.4	0.4444444444444444	9	0	0
0.9574469923973083	0.2727272727272727	0.6	10	0	0
0.0049417102709412575	0.5	0.5	4	1	0
0.021867644041776657	0.30434782608695654	0.4032258064516129	62	6	0
0.290200412273407	0.4	0.8333333333333334	6	0	0
0.6827454566955566	0.3333333333333333	0.8	5	2	0
0.43165966868400574	0.25	0.8	5	2	0
0.4947223961353302	0.3333333333333333	0.46153846153846156	13	1	0
0.12222167104482651	0.2857142857142857	0.3333333333333333	3	1	0
0.5800629258155823	0.4444444444444444	0.6923076923076923	13	10	0
0.9782055020332336	0.09090909090909091	0.5833333333333334	12	0	0
0.21905536949634552	0.0	0.0	15	0	0
0.0	0.5	0.7727272727272727	22	6	0
0.0	0.4444444444444444	0.03571428571428571	28	1	0
0.4285835027694702	0.39285714285714285	0.6	20	1	0
0.10863185673952103	0.3125	0.42857142857142855	7	5	0
0.02361171506345272	0.4117647058823529	0.7777777777777778	9	2	0
0.11209452152252197	0.42857142857142855	0.5	10	2	0
0.12250186502933502	0.25	0.3333333333333333	3	0	0
0.07659391313791275	0.1111111111111111	0.2	5	0	0
0.25742223858833313	0.2857142857142857	0.3333333333333333	3	0	0
0.025268496945500374	0.45	0.5454545454545454	11	2	0
0.567072331905365	0.3684210526315789	0.8	5	0	0
0.006988570559769869	0.3684210526315789	0.7142857142857143	7	0	0
0.021460723131895065	0.11764705882352941	0.8	10	2	0
0.9734728336334229	0.16666666666666666	1.3333333333333333	3	0	0
0.8388237357139587	0.4166666666666667	0.35714285714285715	14	0	0
0.05267748981714249	0.3125	0.3333333333333333	6	3	0
0.9659543633460999	0.25	0.0	9	0	0
0.886806845664978	0.2222222222222222	0.5454545454545454	11	2	0
0.188460111618042	0.19230769230769232	0.16666666666666666	30	2	0
0.01584002934396267	0.0	0.6	5	0	0
0.7528135180473328	0.16666666666666666	0.25	4	0	0
0.5165295004844666	0.3333333333333333	1.0	8	1	0
0.5309712290763855	0.3076923076923077	0.2777777777777778	18	7	0
0.024325022473931313	0.12	0.1951219512195122	41	3	0
0.18974930047988892	0.4	0.5263157894736842	19	3	0
0.2364228516817093	0.4	0.7	10	2	0
0.996475338935852	0.08333333333333333	0.45454545454545453	11	0	0
0.9644263386726379	0.0	0.0	13	0	0
0.008905884809792042	0.45454545454545453	0.047619047619047616	21	0	0
0.49905917048454285	0.8571428571428571	0.125	8	5	0
0.20241044461727142	0.8888888888888888	0.09090909090909091	11	13	0
0.5354357957839966	0.08333333333333333	0.07692307692307693	13	1	0
0.0	0.14285714285714285	0.01639344262295082	61	8	0
0.002931736409664154	0.18421052631578946	0.5454545454545454	11	2	0
0.062182750552892685	0.13333333333333333	0.6666666666666666	6	2	0
0.9340235590934753	0.46153846153846156	0.5333333333333333	15	4	0
0.498977929353714	0.06666666666666667	0.8571428571428571	7	0	0
0.9272347092628479	0.6363636363636364	0.0625	16	4	0
0.7187806367874146	0.0	0.3333333333333333	3	0	0
0.6156778931617737	0.043478260869565216	0.2	5	0	0
0.5738043189048767	0.17647058823529413	0.5	12	2	0
0.6336444616317749	0.6666666666666666	0.4	5	3	0
6.803509895689785E-4	0.14285714285714285	0.125	8	0	0
0.18599751591682434	0.0	1.0	4	0	0
0.0	0.3333333333333333	0.5517241379310345	29	6	0
0.04618105664849281	0.0	0.5	6	2	0
0.0	0.4444444444444444	0.8333333333333334	6	1	0
0.9231049418449402	0.6666666666666666	0.2857142857142857	7	4	0
3.374907246325165E-4	0.5416666666666666	0.7096774193548387	62	13	0
0.43434083461761475	0.1111111111111111	0.6666666666666666	6	3	0
3.2036122865974903E-4	0.7777777777777778	1.3333333333333333	3	3	0
0.5334993004798889	0.0	0.6666666666666666	3	0	0
0.03345683962106705	0.08333333333333333	0.75	4	0	0
0.25389352440834045	0.08333333333333333	0.25	4	0	0
0.5650939345359802	0.2631578947368421	0.058823529411764705	17	1	0
0.04814852774143219	0.2222222222222222	0.25	4	0	0
0.47164684534072876	0.5833333333333334	0.6666666666666666	9	1	0
0.002568974858149886	0.4117647058823529	0.44	25	12	0
0.38655564188957214	0.0	0.6666666666666666	3	0	0
0.7739701867103577	0.5882352941176471	0.375	8	3	0
0.007129112724214792	0.4262295081967213	0.061224489795918366	49	6	0
9.112575207836926E-4	0.36	0.0196078431372549	51	9	0
0.7626839280128479	0.2727272727272727	0.6	5	0	0
0.23079392313957214	0.32	0.8	5	0	0
0.31746962666511536	0.2	0.375	16	9	0
0.2973190248012543	0.0	0.6666666666666666	6	0	0
0.004137743730098009	0.26666666666666666	0.7	10	1	0
0.0011979190167039633	0.2	0.5714285714285714	7	1	0
0.2986449897289276	0.375	0.4444444444444444	9	2	0
0.1759086549282074	0.26666666666666666	0.2857142857142857	7	1	0
0.4291236698627472	0.2916666666666667	0.05555555555555555	18	1	0
0.0017444842960685492	0.2777777777777778	0.5833333333333334	12	0	0
0.03539380431175232	0.3333333333333333	0.8571428571428571	7	2	0
0.8408634066581726	0.2916666666666667	0.3333333333333333	12	0	0
0.5515106916427612	0.3333333333333333	0.2857142857142857	21	7	0
0.7351776957511902	0.125	0.3333333333333333	6	1	0
0.22749607264995575	0.2	0.5714285714285714	7	1	0
0.0731952115893364	0.23076923076923078	0.5714285714285714	7	1	0
0.05199865996837616	0.21428571428571427	0.8571428571428571	7	0	0
0.08916806429624557	0.125	0.25	4	6	0
0.28080445528030396	0.18181818181818182	0.25	4	0	0
0.057444848120212555	0.4117647058823529	1.4	5	0	0
0.0	0.3076923076923077	0.625	8	2	0
0.33033475279808044	0.3684210526315789	0.10526315789473684	38	5	0
0.15063036978244781	0.16666666666666666	0.8333333333333334	6	0	0
0.9738100171089172	0.5	0.2	5	0	0
0.07517561316490173	0.2619047619047619	0.46153846153846156	13	2	0
0.9592872858047485	0.5833333333333334	0.0	15	0	0
0.12158184498548508	0.2	0.3684210526315789	19	11	0
0.00851462036371231	0.42857142857142855	0.9166666666666666	12	0	0
0.023075489327311516	0.21428571428571427	0.03125	32	2	0
0.30371537804603577	0.0	1.0	3	0	0
0.9773026704788208	0.8333333333333334	0.25	4	3	0
0.9766514301300049	0.8333333333333334	0.25	4	1	0
0.020069055259227753	0.0	0.6666666666666666	3	0	0
0.9947207570075989	0.26666666666666666	0.2727272727272727	11	0	0
0.9942161440849304	0.3684210526315789	0.4	10	0	0
0.008220488205552101	0.391304347826087	0.5	8	3	0
0.16622504591941833	0.6666666666666666	0.9090909090909091	11	2	0
0.8665915131568909	0.2	0.6666666666666666	3	0	0
0.8703502416610718	0.25	0.6666666666666666	3	1	0
0.4306487739086151	0.29411764705882354	0.75	4	2	0
0.1472432017326355	0.2857142857142857	0.4166666666666667	12	3	0
0.991418182849884	0.42857142857142855	1.0	3	0	0
0.04443051666021347	0.6521739130434783	0.125	24	16	0
0.8223560452461243	0.375	0.34782608695652173	23	5	0
0.14142388105392456	0.39285714285714285	0.6875	16	3	0
0.04694735258817673	0.3333333333333333	0.9333333333333333	15	2	0
0.5897053480148315	0.29411764705882354	1.0	5	0	0
0.9836185574531555	0.32432432432432434	0.36363636363636365	11	0	0
0.5262936949729919	0.2	0.5714285714285714	7	2	0
0.036601822823286057	0.19047619047619047	0.5333333333333333	15	6	0
0.3522520661354065	0.6875	0.8888888888888888	9	0	0
0.05840657278895378	0.08333333333333333	0.8571428571428571	7	0	0
0.01499059610068798	0.2222222222222222	1.0	3	0	0
0.12566843628883362	0.1	0.3333333333333333	3	0	0
0.054019995033741	0.2	0.06666666666666667	15	2	0
0.25637778639793396	0.05555555555555555	0.16666666666666666	6	1	0
0.07242115586996078	0.5263157894736842	0.55	20	1	0
8.653583936393261E-4	0.3469387755102041	0.2033898305084746	118	20	0
0.3794398605823517	0.24	0.5	8	4	0
0.2274489551782608	0.36363636363636365	1.0	7	2	0
0.10111714154481888	0.5454545454545454	0.6	5	2	0
0.9574318528175354	0.7142857142857143	0.625	8	0	0
0.518862783908844	0.17391304347826086	0.1	10	1	0
0.0013100398937240243	0.5	2.0	7	0	0
0.9447973370552063	0.6153846153846154	0.375	8	0	0
0.0865907296538353	0.03333333333333333	0.07142857142857142	14	1	0
0.7626269459724426	0.75	0.07142857142857142	14	3	0
0.12805916368961334	0.375	0.6666666666666666	3	0	0
0.043533455580472946	0.18181818181818182	0.6666666666666666	3	0	0
6.949706585146487E-4	0.1375	0.208955223880597	67	12	0
0.672667920589447	0.36363636363636365	0.4166666666666667	12	2	0
0.00545604107901454	0.6666666666666666	0.8888888888888888	9	0	0
0.7035535573959351	0.4444444444444444	0.5	6	1	0
0.20533695816993713	0.3	0.5	6	1	0
0.3505920171737671	0.125	0.04	25	4	0
0.7298945188522339	0.4444444444444444	0.625	8	3	0
0.06396755576133728	0.25	1.0	5	1	0
0.8203838467597961	0.14285714285714285	0.6666666666666666	3	0	0
0.0	0.23529411764705882	0.14583333333333334	48	18	0
0.07457365095615387	0.5319148936170213	0.05714285714285714	35	9	0
0.43244999647140503	0.125	1.0	3	0	0
0.8787285685539246	0.3142857142857143	0.13636363636363635	22	1	0
0.13697275519371033	0.2222222222222222	0.4	5	2	0
0.3514191210269928	0.3333333333333333	0.5	4	1	0
0.2012072652578354	0.2413793103448276	0.08108108108108109	37	0	0
0.7286585569381714	0.36	0.0967741935483871	31	11	0
0.9695279598236084	0.18181818181818182	0.5714285714285714	7	0	0
0.0014543691650032997	0.17857142857142858	0.022222222222222223	45	2	0
0.8642768859863281	0.125	0.6666666666666666	3	0	0
0.046309903264045715	0.125	0.6666666666666666	3	0	0
0.7283903360366821	0.3333333333333333	0.7142857142857143	14	3	0
0.4824312925338745	0.125	0.4	5	1	0
0.989317774772644	0.40625	0.18181818181818182	11	1	0
0.9997766613960266	0.7272727272727273	0.1	10	1	0
2.636126009747386E-4	0.25806451612903225	0.0625	16	2	0
0.3825603425502777	0.0	0.07692307692307693	13	0	0
0.9048422574996948	0.1111111111111111	0.23076923076923078	13	0	0
0.04354584962129593	0.2	0.75	4	0	0
0.0	0.19696969696969696	0.25	76	11	0
0.22752636671066284	0.1282051282051282	0.47058823529411764	17	1	0
0.7984344959259033	0.5	0.8	5	0	0
0.3518429398536682	0.25	0.15384615384615385	26	0	0
0.7153014540672302	0.0	0.5714285714285714	7	1	0
0.9961311221122742	0.25	0.3333333333333333	6	0	0
0.062177326530218124	0.15384615384615385	1.0	3	0	0
0.3986165225505829	0.4375	0.631578947368421	19	3	0
0.015957050025463104	0.4	0.8064516129032258	31	4	0
0.6507568359375	0.5294117647058824	0.0625	16	0	0
0.24872687458992004	0.5	0.0	17	1	0
0.900124728679657	0.30434782608695654	0.03333333333333333	30	2	0
0.09833899885416031	0.6666666666666666	1.3333333333333333	3	0	0
0.7175258994102478	0.35714285714285715	0.4074074074074074	27	3	0
0.01001930795609951	0.36	0.037037037037037035	27	1	0
0.32418832182884216	0.0	0.6	5	1	0
0.2080329954624176	0.4166666666666667	0.36363636363636365	11	4	0
0.5528764724731445	0.4166666666666667	0.45454545454545453	11	6	0
0.0017768789548426867	0.37037037037037035	0.037037037037037035	27	11	0
0.09018401801586151	0.38461538461538464	0.9090909090909091	11	4	0
0.927588701248169	0.0	0.3333333333333333	3	0	0
0.057770516723394394	0.23076923076923078	0.75	4	1	0
0.4703165292739868	0.8	0.4444444444444444	9	6	0
0.7184814810752869	0.8	0.14285714285714285	7	4	0
0.5211132168769836	0.4	1.0	3	0	0
0.8903428316116333	0.5714285714285714	0.5714285714285714	7	4	0
0.0	0.1308411214953271	0.05333333333333334	225	30	0
0.00888492539525032	0.5	0.8571428571428571	7	0	0
0.3108595609664917	0.45454545454545453	0.6923076923076923	13	0	0
0.0657220408320427	0.5	0.7	10	1	0
0.200990229845047	0.3333333333333333	0.02857142857142857	35	1	0
0.870387613773346	0.375	0.375	8	1	0
0.9095705151557922	0.5	0.6	5	1	0
5.690518883056939E-4	0.35714285714285715	0.2	5	0	0
0.0	0.17647058823529413	0.01818181818181818	55	0	0
0.003642797702923417	0.16129032258064516	0.05555555555555555	18	0	0
0.17166508734226227	0.25	0.043478260869565216	23	2	0
0.6409701108932495	0.4166666666666667	0.7272727272727273	11	1	0
0.544538140296936	0.3	0.5	8	0	0
0.11898243427276611	0.4166666666666667	0.7272727272727273	11	1	0
0.28511977195739746	0.3333333333333333	0.5454545454545454	11	4	0
0.18330977857112885	0.2727272727272727	0.6363636363636364	11	0	0
0.0053286016918718815	0.2777777777777778	0.5714285714285714	21	1	0
0.3489837646484375	0.05	0.06666666666666667	15	2	0
0.26379135251045227	0.5	0.05	20	4	0
0.28493332862854004	0.4	0.2	15	3	0
0.25920435786247253	0.5	0.3333333333333333	12	8	0
1.1653870024019852E-4	0.5185185185185185	0.3333333333333333	30	14	0
0.3219863772392273	0.2222222222222222	0.5	10	1	0
0.4845426678657532	0.44	0.6	10	5	0
0.027630476281046867	0.2702702702702703	0.5263157894736842	19	1	0
0.4224119782447815	0.0	0.3333333333333333	3	0	0
0.8278612494468689	0.25	0.7777777777777778	18	0	0
0.053197573870420456	0.375	0.5	4	1	0
0.061971016228199005	0.1935483870967742	0.3333333333333333	12	0	0
0.2856822907924652	0.14285714285714285	0.3076923076923077	26	2	0
0.08427632600069046	0.12121212121212122	0.3125	32	4	0
0.94773930311203	0.42857142857142855	0.20689655172413793	29	3	0
0.2946065664291382	0.5	0.6428571428571429	14	7	0
0.006932947784662247	0.3333333333333333	0.05263157894736842	19	1	0
0.02589801885187626	0.1111111111111111	0.8	5	0	0
0.2166597992181778	0.12121212121212122	0.7777777777777778	9	0	0
3.917087451554835E-4	0.21875	0.6551724137931034	29	6	0
0.8593881726264954	0.6	0.8571428571428571	7	0	0
0.26134544610977173	0.3333333333333333	0.2222222222222222	9	4	0
0.01754528097808361	0.3181818181818182	0.22857142857142856	35	6	0
0.1333809643983841	0.09090909090909091	0.75	4	1	0
0.5560356378555298	0.06666666666666667	0.5555555555555556	9	2	0
0.7138959765434265	0.06666666666666667	2.2	5	0	0
0.027827167883515358	0.0	1.0	3	0	0
3.6380841629579663E-4	0.4	1.0	4	0	0
0.8346226811408997	0.3333333333333333	0.4	10	0	0
0.9585182666778564	0.5	0.6666666666666666	3	1	0
0.1279013603925705	0.2727272727272727	0.05555555555555555	18	0	0
0.7780552506446838	0.38461538461538464	0.07142857142857142	14	0	0
0.18305650353431702	0.1509433962264151	0.045454545454545456	22	0	0
0.14814120531082153	0.4	0.6086956521739131	23	0	0
0.883249044418335	0.0	0.3333333333333333	3	0	0
0.01165252085775137	0.26666666666666666	0.3333333333333333	3	0	0
0.6691833138465881	0.4	0.2727272727272727	11	3	0
0.9769993424415588	0.16666666666666666	1.0	3	0	0
0.8319673538208008	0.1111111111111111	0.4444444444444444	9	0	0
0.5682834982872009	0.14285714285714285	0.5	4	1	0
0.9932530522346497	0.0	0.3333333333333333	3	2	0
0.1734631061553955	0.14285714285714285	0.8	5	0	0
0.20393696427345276	0.1	0.2857142857142857	7	0	0
0.46164876222610474	0.3333333333333333	1.0	3	1	0
0.13711176812648773	0.42857142857142855	0.75	4	0	0
0.004719449672847986	0.4444444444444444	0.8333333333333334	6	0	0
0.9079555869102478	0.14285714285714285	0.75	8	2	0
0.9689046144485474	0.35714285714285715	0.06666666666666667	15	0	0
0.9868365526199341	0.35714285714285715	0.045454545454545456	22	0	0
0.7079721689224243	0.16666666666666666	0.32	25	3	0
0.34612077474594116	0.38095238095238093	0.03125	32	0	0
0.9187594056129456	0.75	0.6666666666666666	3	1	0
0.0074589550495147705	0.1111111111111111	0.75	4	0	0
0.9511688351631165	0.3333333333333333	0.5	14	0	0
0.0014385957038030028	0.3469387755102041	0.28846153846153844	52	10	0
0.14753937721252441	0.2222222222222222	0.2727272727272727	11	1	0
0.9692607522010803	0.5	0.2222222222222222	18	6	0
0.8068118691444397	0.36	0.36363636363636365	11	3	0
0.3529568910598755	0.30434782608695654	0.375	8	0	0
0.16770537197589874	0.35	0.47058823529411764	17	0	0
0.09263937175273895	0.2	0.5666666666666667	30	4	0
0.44642695784568787	0.42857142857142855	1.0	5	1	0
0.0023967346642166376	0.1875	0.4444444444444444	9	2	0
0.0	0.27586206896551724	0.9	10	1	0
0.553750216960907	0.375	0.24	25	5	0
0.602400004863739	0.125	0.26666666666666666	15	4	0
0.0	0.19753086419753085	0.36496350364963503	137	18	0
0.553750216960907	0.375	0.24	25	5	0
0.9957295656204224	0.5714285714285714	0.3	10	4	0
0.0775737389922142	0.3888888888888889	0.36363636363636365	11	0	0
0.007728902157396078	0.2727272727272727	1.0	3	0	0
0.0	0.09090909090909091	1.0	3	0	0
0.9056392908096313	0.42857142857142855	0.5714285714285714	7	1	0
0.8938071131706238	0.2727272727272727	0.375	8	1	0
0.7317199110984802	0.23076923076923078	0.625	8	1	0
0.005726058501750231	0.35714285714285715	0.75	8	2	0
9.587811073288321E-4	0.14285714285714285	1.0	3	0	0
0.059808921068906784	0.5	0.6666666666666666	6	1	0
0.027990512549877167	0.22	0.09259259259259259	54	4	0
0.914858341217041	0.25	1.0	3	0	0
0.7940593957901001	0.375	0.42857142857142855	7	1	0
0.7704561352729797	0.5	0.75	4	0	0
0.25140345096588135	0.46153846153846156	0.0	23	0	0
0.03278262913227081	0.0	0.5	8	1	0
0.36595943570137024	0.6666666666666666	1.2857142857142858	7	0	0
0.4118778109550476	0.21428571428571427	0.8571428571428571	7	0	0
0.0032421632204204798	0.16666666666666666	0.16666666666666666	6	0	0
0.0025160368531942368	0.6363636363636364	0.75	4	1	0
0.2749350368976593	0.3125	0.5	4	2	0
0.11155832558870316	0.16666666666666666	0.5	4	0	0
0.0028900171164423227	0.13333333333333333	1.0	5	0	0
0.8302682042121887	0.09090909090909091	0.47058823529411764	17	2	0
0.29570096731185913	0.2857142857142857	0.5	4	0	0
0.24598059058189392	0.29411764705882354	0.8888888888888888	9	2	0
0.9932501316070557	0.75	0.8333333333333334	6	0	0
0.04558137059211731	0.8333333333333334	0.8571428571428571	7	0	0
0.007954087108373642	0.35	0.6190476190476191	42	1	0
0.0	0.4375	0.42857142857142855	35	3	0
0.7694002389907837	0.2857142857142857	0.4	15	2	0
0.14530609548091888	0.45	0.038461538461538464	26	5	0
0.01070342492312193	0.42857142857142855	0.01818181818181818	55	0	0
0.0	0.4666666666666667	0.25	4	0	0
0.2448890656232834	0.6428571428571429	1.0	6	0	0
0.9923175573348999	0.5	0.3333333333333333	3	1	0
0.6461170315742493	0.46153846153846156	1.0	3	0	0
0.0010620582615956664	0.19230769230769232	0.8333333333333334	6	0	0
0.011428588069975376	0.625	0.5833333333333334	12	5	0
0.7553929090499878	0.21739130434782608	0.5	6	0	0
0.0021895088721066713	0.11764705882352941	0.3225806451612903	31	2	0
0.5680713653564453	0.3333333333333333	1.0	6	1	0
0.2598477602005005	0.32075471698113206	0.4166666666666667	24	6	0
0.45584920048713684	0.15384615384615385	0.375	8	1	0
0.029781319200992584	0.23684210526315788	0.5882352941176471	17	0	0
0.5211217999458313	0.18181818181818182	0.5454545454545454	11	0	0
0.4906488060951233	0.38181818181818183	0.03225806451612903	31	5	0
0.8656190037727356	0.47368421052631576	0.38461538461538464	13	3	0
0.02713632956147194	0.30434782608695654	0.05263157894736842	19	0	0
0.8962949514389038	0.3	0.3333333333333333	3	0	0
0.9377548694610596	0.3333333333333333	0.75	4	4	0
0.7620557546615601	0.16666666666666666	0.5	4	0	0
0.00694614090025425	0.6875	0.4	25	11	0
0.0827946588397026	0.4166666666666667	0.23076923076923078	13	0	0
0.02377171814441681	0.5	0.8888888888888888	9	3	0
0.0015231133438646793	0.05263157894736842	1.0	3	0	0
0.27041250467300415	0.16666666666666666	1.0	3	0	0
0.6094534397125244	0.3333333333333333	0.06666666666666667	15	1	0
0.4056822657585144	0.0625	1.0	3	0	0
0.42141464352607727	0.1111111111111111	0.7	10	3	0
0.047291871160268784	0.06666666666666667	0.6	10	0	0
0.931003987789154	0.2903225806451613	0.42857142857142855	14	1	0
0.0024894585367292166	0.16129032258064516	0.8333333333333334	12	0	0
0.0	0.25925925925925924	0.5948275862068966	116	5	0
0.23275138437747955	0.4444444444444444	0.058823529411764705	17	3	0
0.9970214366912842	0.3333333333333333	0.2857142857142857	7	0	0
0.7627066969871521	0.4074074074074074	0.3333333333333333	15	4	0
0.31641891598701477	0.30434782608695654	0.034482758620689655	29	2	0
0.5044518709182739	0.5555555555555556	0.35714285714285715	14	2	0
0.0	0.125	1.8867924528301887	53	0	0
0.6794842481613159	0.47368421052631576	0.7142857142857143	7	1	0
0.002604890614748001	0.07692307692307693	0.2	5	0	0
0.7480574250221252	0.2857142857142857	0.4	5	3	0
0.990313708782196	0.3333333333333333	0.0	7	0	0
4.719134885817766E-4	0.21428571428571427	0.5	14	0	0
0.6586481332778931	0.2222222222222222	0.36363636363636365	11	3	0
0.3789445757865906	0.35294117647058826	0.2	15	2	0
0.439016193151474	0.34782608695652173	0.875	8	0	0
0.9241980314254761	0.21428571428571427	0.5	8	1	0
0.0011254382552579045	0.18867924528301888	0.43037974683544306	79	16	0
0.04945724457502365	0.3076923076923077	1.1666666666666667	6	1	0
0.444204717874527	0.2857142857142857	0.5	4	1	0
0.006274581886827946	0.05555555555555555	0.14285714285714285	7	0	0
0.9802098274230957	0.45454545454545453	0.2	5	0	0
0.10636593401432037	0.1	0.5	8	0	0
0.2207900583744049	0.4	0.09090909090909091	11	9	0
0.9889874458312988	0.2	0.3333333333333333	3	1	0
0.007523403037339449	0.7272727272727273	1.5	6	0	0
0.0042207553051412106	0.3870967741935484	0.7307692307692307	26	3	0
0.8550737500190735	0.35294117647058826	0.0	21	0	0
0.15492641925811768	0.22727272727272727	0.8181818181818182	11	0	0
0.008533933199942112	0.2857142857142857	1.0	4	0	0
0.006379107013344765	0.5	1.0	3	0	0
0.7462415099143982	0.3333333333333333	0.75	4	0	0
0.1776382476091385	0.5714285714285714	0.8333333333333334	6	0	0
0.0	0.10344827586206896	0.013888888888888888	72	9	0
0.0	0.12	0.012195121951219513	82	6	0
0.9555134177207947	0.3684210526315789	0.2857142857142857	7	1	0
0.8336409330368042	0.13333333333333333	0.38461538461538464	26	0	0
0.001398772932589054	0.05555555555555555	0.1111111111111111	9	1	0
0.9981198906898499	0.4375	0.3333333333333333	12	1	0
0.9998210668563843	0.42857142857142855	0.3333333333333333	3	0	0
0.0012162516359239817	0.16666666666666666	0.09375	32	0	0
0.31962132453918457	0.36363636363636365	0.043478260869565216	23	1	0
0.013870010152459145	0.29411764705882354	0.6	5	1	0
0.0049422080628573895	0.2608695652173913	0.1	30	1	0
0.533909022808075	0.09090909090909091	0.4444444444444444	9	1	0
0.9402660727500916	0.6	0.5333333333333333	15	4	0
0.8406392335891724	0.36363636363636365	1.0	3	1	0
0.7599007487297058	0.375	0.8	5	1	0
0.44834694266319275	0.36363636363636365	1.3333333333333333	3	1	0
0.0020965030416846275	0.14754098360655737	0.35714285714285715	84	2	0
0.012247158214449883	0.12	0.3	40	0	0
0.437588095664978	0.16666666666666666	0.75	4	0	0
0.09957364946603775	0.06666666666666667	0.6	10	4	0
0.014009593054652214	0.2777777777777778	0.6	5	1	0
0.10671524703502655	0.3448275862068966	0.5714285714285714	21	3	0
0.8965446949005127	0.2	0.18181818181818182	11	1	0
0.018981052562594414	0.3170731707317073	0.5	10	1	0
0.5361949801445007	0.3	0.0	9	0	0
0.8197972774505615	0.18181818181818182	0.6363636363636364	11	1	0
0.8275400400161743	0.16666666666666666	0.6363636363636364	11	1	0
0.0032321116887032986	0.3157894736842105	0.5454545454545454	11	3	0
0.548662543296814	0.18518518518518517	0.42857142857142855	14	2	0
0.3701847195625305	0.5384615384615384	0.047619047619047616	21	2	0
0.05233043059706688	0.45714285714285713	0.0	36	4	0
2.5456605362705886E-4	0.16666666666666666	0.5714285714285714	7	5	0
0.21479469537734985	0.0	0.1111111111111111	9	0	0
0.002047755988314748	0.28125	0.44	25	3	0
0.05362984165549278	0.0	1.0	3	0	0
0.11538786441087723	0.0	0.3333333333333333	3	0	0
0.013380675576627254	0.28205128205128205	0.5483870967741935	31	3	0
0.36090970039367676	0.25	0.5	8	0	0
0.6581089496612549	0.3	0.5384615384615384	13	5	0
0.9780660271644592	0.25	0.3333333333333333	3	2	0
6.936226855032146E-4	0.5	1.0	3	0	0
0.6315187215805054	0.3684210526315789	0.04	25	0	0
0.07898072153329849	0.041666666666666664	0.8125	16	4	0
0.048602569848299026	0.2413793103448276	0.7333333333333333	15	3	0
0.3224228620529175	0.07692307692307693	0.3333333333333333	3	0	0
0.0	0.18292682926829268	0.18461538461538463	65	2	0
0.15065990388393402	0.35	0.35714285714285715	14	3	0
0.23058660328388214	0.25	0.7272727272727273	11	2	0
0.03366662189364433	0.12195121951219512	0.5	32	4	0
0.7218606472015381	0.29411764705882354	0.7272727272727273	11	2	0
1.2186264939373359E-4	0.4166666666666667	1.0	3	0	0
0.0021181334741413593	0.4166666666666667	1.0	5	0	0
0.001233450835570693	0.5	1.1	10	0	0
0.3641737103462219	0.30434782608695654	0.5238095238095238	21	3	0
0.5172455906867981	0.5	1.0	3	0	0
0.7206868529319763	0.23809523809523808	0.3333333333333333	9	5	0
0.2826637327671051	0.6	0.6875	16	1	0
0.9572150111198425	0.5555555555555556	0.35714285714285715	14	4	0
0.11352455615997314	0.08333333333333333	1.0	3	0	0
0.9989054203033447	0.52	0.3333333333333333	3	0	0
0.17200127243995667	0.19230769230769232	0.5	10	1	0
0.8984583020210266	0.47368421052631576	0.047619047619047616	21	4	0
0.6874023675918579	0.46153846153846156	0.0	11	1	0
0.41147032380104065	0.5	0.0	10	0	0
0.4006864130496979	0.3333333333333333	0.5384615384615384	13	1	0
0.0399840772151947	0.5	0.38461538461538464	26	5	0
0.9830132722854614	0.0	0.09090909090909091	11	0	0
0.884868323802948	0.5384615384615384	0.42857142857142855	7	0	0
0.3998720347881317	0.25	0.6666666666666666	6	0	0
0.6631445288658142	0.4	0.5	4	0	0
0.5949053764343262	0.2222222222222222	0.5	4	0	0
0.6860456466674805	0.5	0.18181818181818182	11	3	0
0.0034007083158940077	0.36666666666666664	0.8529411764705882	34	13	0
0.1104734018445015	0.391304347826087	0.0	9	1	0
0.6399183869361877	0.23529411764705882	0.6	5	1	0
0.01156243123114109	0.18181818181818182	1.0	8	0	0
0.21476176381111145	0.25	0.058823529411764705	17	1	0
0.7119637727737427	0.5	0.45454545454545453	11	4	0
0.4715617299079895	0.6666666666666666	1.0	4	1	0
0.09343214333057404	0.2857142857142857	0.6666666666666666	3	0	0
0.418265700340271	0.0	0.3333333333333333	3	0	0
0.8081607818603516	1.0	1.3333333333333333	3	0	0
0.049361858516931534	0.2777777777777778	0.7083333333333334	24	6	0
0.05767720192670822	0.18181818181818182	0.6666666666666666	3	0	0
0.019043374806642532	0.23333333333333334	0.08823529411764706	34	6	0
0.20113220810890198	0.07692307692307693	0.038461538461538464	26	0	0
0.04894227534532547	0.3125	0.2	15	0	0
0.6168745756149292	0.38095238095238093	0.46153846153846156	13	0	0
0.9641729593276978	0.2857142857142857	0.5	6	1	0
0.5678731203079224	0.4	0.14285714285714285	7	1	0
0.0012254565954208374	0.05	0.2222222222222222	9	0	0
9.787477320060134E-4	0.3614457831325301	0.5961538461538461	52	16	0
0.04824066534638405	0.3448275862068966	0.14285714285714285	7	0	0
0.6456426382064819	0.3333333333333333	0.09090909090909091	22	0	0
0.6007778644561768	0.10526315789473684	0.6666666666666666	6	0	0
6.385355372913182E-4	0.22580645161290322	0.20454545454545456	44	9	0
3.346585144754499E-4	0.1568627450980392	0.0784313725490196	51	6	0
0.1621941775083542	0.1875	0.7142857142857143	7	2	0
2.956485259346664E-4	0.2222222222222222	0.03225806451612903	31	1	0
0.0	0.23076923076923078	0.47368421052631576	19	3	0
0.01854693330824375	0.55	0.03571428571428571	28	0	0
0.005619690287858248	0.2222222222222222	0.5121951219512195	41	17	0
0.8661741018295288	0.2727272727272727	0.7142857142857143	7	1	0
0.9780466556549072	0.37681159420289856	0.21311475409836064	61	4	0
0.6186536550521851	0.125	0.4	10	0	0
0.42268162965774536	0.7777777777777778	0.8	5	3	0
0.1420360803604126	0.2	0.625	16	0	0
0.996344804763794	0.5	0.42857142857142855	7	0	0
0.08389204740524292	0.2857142857142857	0.6	5	4	0
0.0	0.2553191489361702	0.005917159763313609	169	0	0
0.30277204513549805	0.13953488372093023	0.391304347826087	23	5	0
0.09368237107992172	0.3333333333333333	0.5	8	0	0
0.02332577109336853	0.4583333333333333	0.125	16	3	0
0.3338139057159424	0.18181818181818182	0.5	10	3	0
0.36421582102775574	0.28	0.0	13	0	0
0.15826848149299622	0.3333333333333333	0.42857142857142855	7	4	0
0.16215595602989197	0.3333333333333333	0.42857142857142855	7	4	0
0.4322572350502014	0.2916666666666667	0.42857142857142855	7	1	0
0.2517017126083374	0.0	0.1	10	0	0
1.0111618030350655E-4	0.18421052631578946	0.34285714285714286	70	9	0
0.05669621005654335	0.3333333333333333	0.0196078431372549	51	6	0
0.6410227417945862	0.2	0.4	15	4	0
0.8987227082252502	0.0	0.058823529411764705	17	1	0
0.020526830106973648	0.42857142857142855	0.4	5	3	0
0.4407128393650055	0.09090909090909091	0.5	6	0	0
0.0	0.42857142857142855	1.0	3	0	0
0.3692833483219147	0.13333333333333333	0.043478260869565216	23	3	0
0.01584605500102043	0.12244897959183673	0.26666666666666666	30	3	0
0.0	0.37037037037037035	0.07142857142857142	14	3	0
0.0	0.29896907216494845	0.07017543859649122	57	7	0
0.965217113494873	0.3333333333333333	0.75	4	0	0
0.312418133020401	0.26666666666666666	0.2777777777777778	18	0	0
0.2877469062805176	0.3888888888888889	0.6666666666666666	6	0	0
0.0387226901948452	0.42857142857142855	0.25	4	1	0
0.7121167182922363	0.4444444444444444	1.0	3	0	0
0.23459525406360626	0.5454545454545454	0.8571428571428571	7	0	0
0.019770869985222816	0.2903225806451613	0.5625	16	6	0
0.34830760955810547	0.3076923076923077	0.0625	16	1	0
0.0	0.7142857142857143	0.25	20	1	0
0.8730327486991882	0.2	0.42857142857142855	7	0	0
0.3892032504081726	0.14814814814814814	0.45454545454545453	11	0	0
0.020720025524497032	0.3333333333333333	0.6666666666666666	3	0	0
0.16939690709114075	0.22857142857142856	0.034482758620689655	29	1	0
0.976006805896759	0.15384615384615385	0.125	8	0	0
0.7197225689888	0.0	0.3333333333333333	3	0	0
0.30911603569984436	0.14285714285714285	0.5882352941176471	17	2	0
0.8626580834388733	0.2222222222222222	0.4666666666666667	15	0	0
0.0	0.45454545454545453	0.75	4	3	0
0.7243717312812805	0.45454545454545453	0.6	15	5	0
0.14372670650482178	0.2692307692307692	0.05	20	3	0
0.2305987924337387	0.21428571428571427	0.0	29	3	0
0.05436774343252182	0.0	0.1111111111111111	9	0	0
0.030136141926050186	0.09090909090909091	0.8	5	0	0
0.0	0.2682926829268293	0.3404255319148936	94	7	0
0.0016769603826105595	0.18181818181818182	0.6666666666666666	9	2	0
2.682018675841391E-4	0.5	0.5	22	6	0
0.0	0.38461538461538464	0.013888888888888888	72	36	0
0.036791205406188965	0.13636363636363635	0.8333333333333334	6	0	0
1.4654279220849276E-4	0.15384615384615385	1.0	5	0	0
0.926621675491333	0.6206896551724138	0.2727272727272727	11	8	0
0.9853171110153198	0.16666666666666666	0.75	4	0	0
0.3283608853816986	0.3684210526315789	0.7692307692307693	13	1	0
0.002111416310071945	0.5	1.3333333333333333	3	1	0
0.014670572243630886	0.4444444444444444	1.25	4	0	0
0.004963836167007685	0.16666666666666666	0.2	5	0	0
0.0020263614133000374	0.45454545454545453	0.5555555555555556	9	3	0
0.16637298464775085	0.5	1.0	4	1	0
0.0751478523015976	0.2	1.0	4	0	0
0.05528106167912483	0.17857142857142858	0.47619047619047616	21	2	0
0.797305703163147	0.14285714285714285	0.6666666666666666	9	0	0
0.747015118598938	0.16666666666666666	0.6666666666666666	9	0	0
0.41345492005348206	0.13333333333333333	0.09090909090909091	11	0	0
0.04109765589237213	0.375	0.6666666666666666	3	1	0
0.17363055050373077	0.3333333333333333	0.6666666666666666	3	1	0
0.1357138305902481	0.16666666666666666	0.40540540540540543	37	3	0
0.00896507129073143	0.3333333333333333	0.75	4	1	0
0.06634297221899033	0.25	0.631578947368421	19	5	0
0.8044164180755615	0.0	0.5	6	0	0
0.9770495891571045	0.30434782608695654	0.3157894736842105	19	4	0
0.6426258683204651	0.2222222222222222	0.6	5	0	0
0.29323992133140564	0.2	1.0	3	0	0
0.9886362552642822	0.15384615384615385	0.375	8	0	0
0.26589709520339966	0.3	0.07692307692307693	13	3	0
0.11846133321523666	0.4166666666666667	0.47619047619047616	21	7	0
0.014872344210743904	0.375	0.4	15	2	0
0.12966829538345337	0.3684210526315789	0.8888888888888888	9	0	0
0.12683524191379547	0.29411764705882354	0.7692307692307693	13	3	0
0.0	0.2222222222222222	1.0	5	0	0
1.7546795425005257E-4	0.36363636363636365	1.0	4	0	0
0.9521332383155823	0.35714285714285715	0.05555555555555555	18	1	0
0.1391104757785797	0.3157894736842105	0.21739130434782608	23	6	0
0.9959495067596436	0.375	0.26666666666666666	15	3	0
0.007015225011855364	0.375	0.4782608695652174	23	11	0
0.023918744176626205	0.125	0.022222222222222223	45	3	0
0.11612813919782639	0.6129032258064516	0.5	16	5	0
0.09195146709680557	0.42857142857142855	1.0	4	0	0
0.003942325245589018	0.4523809523809524	0.03333333333333333	30	4	0
0.9241330623626709	0.5	0.3333333333333333	3	0	0
0.06085982918739319	0.1	1.0	3	0	0
0.025904498994350433	0.4	0.375	16	5	0
0.8387607336044312	0.3181818181818182	0.13333333333333333	15	0	0
0.12857334315776825	0.42857142857142855	0.2857142857142857	28	13	0
0.9339812994003296	0.07692307692307693	0.7142857142857143	7	1	0
0.13242153823375702	0.09523809523809523	0.7142857142857143	7	2	0
0.3410572409629822	0.4838709677419355	0.5	6	1	0
0.7210752964019775	0.18181818181818182	0.06896551724137931	29	2	0
0.6835328340530396	0.18181818181818182	0.06896551724137931	29	2	0
0.15354657173156738	0.2	0.75	4	0	0
0.011267398484051228	0.3333333333333333	0.6666666666666666	21	2	0
0.8755912184715271	0.36363636363636365	0.125	16	1	0
0.017422381788492203	0.2222222222222222	1.0	4	0	0
0.8119121193885803	0.4	0.56	25	0	0
0.08388970792293549	0.36585365853658536	0.038461538461538464	26	0	0
0.6006656289100647	0.26666666666666666	0.625	8	1	0
0.7621024250984192	0.10526315789473684	0.5454545454545454	11	2	0
0.024318944662809372	0.38461538461538464	0.019230769230769232	52	5	0
0.2592484652996063	0.6666666666666666	0.16666666666666666	6	0	0
0.08360278606414795	0.625	0.8888888888888888	9	2	0
0.3478817641735077	0.2222222222222222	0.027777777777777776	36	6	0
0.6772409081459045	0.12	0.5	12	0	0
0.5046034455299377	0.36363636363636365	0.36363636363636365	11	4	0
0.40689733624458313	0.29411764705882354	0.6666666666666666	18	3	0
0.0	0.2571428571428571	0.4	5	0	0
0.4208810329437256	0.47058823529411764	0.6956521739130435	23	5	0
0.0017237556166946888	0.21951219512195122	0.6486486486486487	37	2	0
0.09871000051498413	0.26666666666666666	0.5	4	1	0
0.5696012377738953	0.2857142857142857	0.6666666666666666	3	1	0
0.386966347694397	0.5454545454545454	0.2	5	2	0
0.08673419058322906	0.391304347826087	0.875	8	1	0
0.8465442657470703	0.1111111111111111	0.23809523809523808	21	3	0
0.023193545639514923	0.15789473684210525	0.5	10	4	0
5.198411527089775E-4	0.07692307692307693	1.0	3	0	0
0.5306273102760315	0.08333333333333333	0.75	4	0	0
0.0029877610504627228	0.15254237288135594	0.7142857142857143	35	10	0
0.008863337337970734	0.4666666666666667	0.9090909090909091	11	1	0
0.0012151016853749752	0.06521739130434782	0.02	50	4	0
0.6421370506286621	0.4666666666666667	0.6666666666666666	12	1	0
0.8247316479682922	0.17647058823529413	0.42857142857142855	7	0	0
0.8666790127754211	0.5	0.42857142857142855	7	2	0
0.8386828303337097	0.5	0.5	4	1	0
0.014485794119536877	0.8125	0.5	18	15	0
0.15794020891189575	0.16279069767441862	0.5925925925925926	27	2	0
0.01079303678125143	0.23529411764705882	0.875	8	0	0
0.8303625583648682	0.21212121212121213	0.375	16	1	0
0.17005884647369385	0.36363636363636365	0.625	8	1	0
0.018415074795484543	0.4666666666666667	0.6	10	1	0
0.0018046635668724775	0.4411764705882353	0.45161290322580644	31	3	0
0.08283273875713348	0.2727272727272727	0.42105263157894735	19	4	0
0.12112679332494736	0.16666666666666666	1.0	3	0	0
0.005240476690232754	0.16	0.0625	16	0	0
0.40064024925231934	0.6666666666666666	0.7272727272727273	11	3	0
0.04619716480374336	0.6666666666666666	1.1428571428571428	7	2	0
0.07971078902482986	0.4411764705882353	0.6153846153846154	26	8	0
0.002749659353867173	0.3333333333333333	0.6666666666666666	3	3	0
0.2613705098628998	0.2857142857142857	0.42857142857142855	7	4	0
0.4740974009037018	0.3333333333333333	0.3333333333333333	6	4	0
0.9061566591262817	0.14285714285714285	0.0	9	0	0
1.6781083832029253E-4	0.39473684210526316	0.5	10	3	0
0.036877114325761795	0.5555555555555556	0.4666666666666667	15	14	0
0.03047691471874714	0.2222222222222222	0.625	8	1	0
0.1375601887702942	0.07692307692307693	0.9	10	0	0
0.9685481786727905	0.625	1.0	4	0	0
0.9685481786727905	0.625	1.0	4	0	0
0.6225566864013672	0.4444444444444444	0.1	10	0	0
0.0	0.3076923076923077	1.0	7	1	0
0.30042165517807007	0.3076923076923077	2.1666666666666665	12	0	0
0.5137722492218018	0.5	1.0	4	0	0
0.22391802072525024	0.06896551724137931	0.15	20	1	0
0.997207522392273	0.5555555555555556	0.4	5	0	0
0.10679224133491516	0.625	0.7142857142857143	7	0	0
0.021233581006526947	0.3684210526315789	0.08163265306122448	49	4	0
0.17679011821746826	0.358974358974359	0.5405405405405406	37	2	0
0.9911394119262695	0.8	0.4	5	0	0
0.9623250961303711	0.6666666666666666	0.06666666666666667	15	0	0
1.3205291179474443E-4	0.38461538461538464	0.3333333333333333	3	0	0
0.0	0.25	0.3333333333333333	3	0	0
0.0	0.5	0.8571428571428571	7	0	0
0.008925282396376133	0.42857142857142855	0.38461538461538464	13	2	0
0.8406310081481934	0.3333333333333333	0.16666666666666666	6	1	0
0.7061821222305298	0.3125	0.625	8	0	0
0.007293863222002983	0.34615384615384615	0.5	20	3	0
0.8362210988998413	0.3157894736842105	0.5454545454545454	11	0	0
0.21540065109729767	0.5714285714285714	0.5454545454545454	11	2	0
8.606492774561048E-4	0.3	0.8	5	0	0
0.039228688925504684	0.1388888888888889	0.02702702702702703	37	5	0
0.33855587244033813	0.3793103448275862	0.38461538461538464	13	4	0
0.010355024598538876	0.2	0.8	10	0	0
0.057118114084005356	0.5	0.125	8	4	0
0.8050646781921387	0.5	0.45454545454545453	11	2	0
0.2927870750427246	0.4444444444444444	0.5384615384615384	13	3	0
0.6704613566398621	0.3125	0.5	22	2	0
0.7283610105514526	0.1	0.6666666666666666	3	0	0
0.3029085397720337	0.3333333333333333	0.0	25	4	0
0.48955821990966797	0.25	0.8333333333333334	6	0	0
0.0	0.17647058823529413	0.5384615384615384	39	4	0
0.3166915476322174	0.5454545454545454	0.7	10	0	0
0.9865086674690247	1.0	0.0	11	2	0
0.3209398686885834	0.26666666666666666	0.2857142857142857	7	1	0
0.0026047956198453903	0.6111111111111112	0.8571428571428571	7	1	0
0.0	0.09016393442622951	0.05263157894736842	38	0	0
0.04307734593749046	0.21052631578947367	0.7777777777777778	9	2	0
0.11473574489355087	0.42857142857142855	0.25	12	2	0
0.010407613590359688	0.43333333333333335	0.7777777777777778	18	0	0
0.15448230504989624	0.3333333333333333	0.5714285714285714	7	2	0
0.9943922758102417	0.5	0.058823529411764705	17	0	0
0.37575897574424744	0.06060606060606061	0.5333333333333333	15	0	0
0.11870288103818893	0.2857142857142857	0.8	10	1	0
0.8694005608558655	0.375	0.6666666666666666	6	0	0
0.48174282908439636	0.1875	0.375	8	1	0
0.8694005608558655	0.375	0.6666666666666666	6	0	0
0.9369704723358154	0.5	0.6666666666666666	3	1	0
0.08764024823904037	0.10256410256410256	0.5	30	0	0
0.012992707081139088	0.3333333333333333	0.5	12	0	0
0.5951989889144897	0.5714285714285714	0.7142857142857143	7	1	0
0.08473408222198486	0.6666666666666666	1.3333333333333333	3	1	0
0.7179931998252869	0.4782608695652174	0.5384615384615384	13	0	0
0.06211894750595093	0.46153846153846156	0.7142857142857143	7	7	0
0.005087655037641525	0.16326530612244897	0.058823529411764705	17	0	0
0.4504832327365875	0.41935483870967744	0.038461538461538464	26	1	0
0.03763341158628464	0.3181818181818182	0.045454545454545456	22	4	0
0.7983276844024658	0.07142857142857142	0.08	25	0	0
0.12539903819561005	0.2222222222222222	0.8333333333333334	6	0	0
0.12662027776241302	0.7307692307692307	0.9090909090909091	11	0	0
0.39849841594696045	0.4074074074074074	0.38095238095238093	21	1	0
0.004862998612225056	0.46153846153846156	0.6086956521739131	23	4	0
0.022283285856246948	0.25	1.0	3	0	0
0.9386259317398071	0.18181818181818182	0.5	4	0	0
8.178101270459592E-4	0.5238095238095238	0.9166666666666666	24	7	0
0.04137060046195984	0.4	0.6666666666666666	3	0	0
0.0011254209093749523	0.16	0.45	20	5	0
0.8610568642616272	0.21428571428571427	0.8	5	1	0
0.5241491794586182	0.14285714285714285	0.5	4	1	0
0.0	0.2909090909090909	0.007936507936507936	126	16	0
0.0032235030084848404	0.21818181818181817	0.625	32	1	0
0.001755181816406548	0.47619047619047616	1.0	9	0	0
2.0854236208833754E-4	0.391304347826087	1.0769230769230769	13	0	0
0.31781715154647827	0.0	0.5	4	2	0
0.10127275437116623	0.3684210526315789	0.6428571428571429	14	1	0
0.6014598608016968	0.5	1.3333333333333333	3	0	0
0.0026237780693918467	0.375	0.5555555555555556	9	3	0
0.03486257418990135	0.45454545454545453	1.0	3	0	0
0.0	0.3	0.6190476190476191	42	0	0
0.5225253105163574	0.14285714285714285	0.5	4	1	0
0.32612112164497375	0.3333333333333333	0.5	6	2	0
0.996738851070404	0.5714285714285714	0.6666666666666666	3	0	0
0.1390954703092575	0.2	0.8	5	1	0
0.23073293268680573	0.06666666666666667	0.5555555555555556	9	0	0
0.5504493117332458	0.0	0.6	5	0	0
0.7798057794570923	0.5	0.7	10	0	0
0.06368178129196167	0.38461538461538464	0.7272727272727273	11	0	0
0.010320463217794895	0.23529411764705882	1.0	3	0	0
0.7774261236190796	0.23809523809523808	0.6666666666666666	6	0	0
0.21231460571289062	0.19047619047619047	0.75	4	0	0
0.2386140674352646	0.13636363636363635	0.23076923076923078	13	1	0
0.054432567209005356	0.40540540540540543	1.0	7	0	0
0.7767735719680786	0.2	0.375	8	0	0
0.7305450439453125	0.23076923076923078	0.6363636363636364	11	2	0
0.9859279990196228	0.4	0.8	5	0	0
0.22048185765743256	0.041666666666666664	0.625	8	1	0
0.047378771007061005	0.5	0.5	12	7	0
0.026848698034882545	0.2777777777777778	0.8333333333333334	6	1	0
0.009091517888009548	0.5	0.75	4	0	0
0.016129959374666214	0.5454545454545454	1.0	4	0	0
0.34780141711235046	0.1111111111111111	0.8	5	0	0
0.04139730706810951	0.5789473684210527	0.8333333333333334	18	4	0
0.24652712047100067	0.2	0.6666666666666666	12	1	0
0.9034809470176697	0.2222222222222222	0.3333333333333333	15	0	0
0.4244607090950012	0.3333333333333333	0.03225806451612903	31	2	0
0.0027627134695649147	0.0	0.2	5	0	0
0.01514930184930563	0.09090909090909091	0.2	5	0	0
0.42764201760292053	0.2857142857142857	0.6666666666666666	6	0	0
0.026478160172700882	0.7647058823529411	0.6923076923076923	13	4	0
0.6999910473823547	0.15	0.625	8	0	0
0.3602898120880127	0.42857142857142855	0.5555555555555556	18	2	0
0.6814033389091492	0.15384615384615385	0.375	8	0	0
0.012799623422324657	0.21052631578947367	0.043478260869565216	23	4	0
2.4168784148059785E-4	0.46153846153846156	0.75	4	0	0
0.9460269212722778	0.16666666666666666	0.8	5	0	0
0.17192022502422333	0.1935483870967742	0.5384615384615384	13	0	0
0.41894933581352234	0.07692307692307693	0.5	6	0	0
0.4801693558692932	0.07692307692307693	0.5	6	0	0
0.0	0.06666666666666667	1.0	5	0	0
8.301992784254253E-4	0.125	0.41935483870967744	31	8	0
0.0035574871581047773	0.4	0.6153846153846154	13	3	0
0.0	0.37254901960784315	0.0136986301369863	73	5	0
0.0	0.5	0.07142857142857142	14	0	0
0.5817765593528748	0.2	0.4444444444444444	9	2	0
0.004406072199344635	0.375	0.6666666666666666	3	0	0
0.008527417667210102	0.2	0.7	10	0	0
0.011267917230725288	0.125	0.7272727272727273	11	0	0
0.011436259374022484	0.16666666666666666	0.4666666666666667	15	2	0
0.0032881738152354956	0.043478260869565216	1.0	4	0	0
0.05158592760562897	0.25	0.8571428571428571	7	1	0
0.34346726536750793	0.3793103448275862	0.0	14	2	0
0.9931007623672485	0.6666666666666666	1.0	3	6	0
0.9621923565864563	0.6666666666666666	0.3333333333333333	9	7	0
0.02112147957086563	0.375	0.6666666666666666	9	0	0
0.9452168345451355	0.6923076923076923	0.07142857142857142	14	4	0
0.0	0.07692307692307693	1.0	12	1	0
0.16740988194942474	0.125	0.5833333333333334	12	0	0
